# .PCD v0.7 - Point Cloud Data file format
VERSION 0.7
FIELDS x y z rgb
SIZE 4 4 4 4
TYPE F F F F
COUNT 1 1 1 1
WIDTH 1173
HEIGHT 1
VIEWPOINT 0 0 0 1 0 0 0
POINTS 1173
DATA ascii
-0.019616762 -0.014516404 0.18200001 nan
-0.019224428 -0.014516404 0.18200001 nan
-0.017262751 -0.014516404 0.18200001 nan
-0.016085746 -0.014516404 0.18200001 nan
-0.008773651 -0.014755686 0.185 nan
-0.0082390402 -0.014516404 0.18200001 nan
0.0019832333 -0.014675926 0.18400002 nan
0.0099161658 -0.014675926 0.18400002 nan
0.010200717 -0.014516404 0.18200001 nan
0.011770058 -0.014516404 0.18200001 nan
0.012162393 -0.014516404 0.18200001 nan
0.012554728 -0.014516404 0.18200001 nan
0.014124069 -0.014516404 0.18200001 nan
0.014516404 -0.014516404 0.18200001 nan
0.015693411 -0.014516404 0.18200001 nan
0.016085746 -0.014516404 0.18200001 nan
0.01647808 -0.014516404 0.18200001 nan
0.017262751 -0.014516404 0.18200001 nan
0.018047422 -0.014516404 0.18200001 nan
0.018439759 -0.014516404 0.18200001 nan
0.018832091 -0.014516404 0.18200001 nan
0.019224428 -0.014516404 0.18200001 nan
0.019616762 -0.014516404 0.18200001 nan
0.020401433 -0.014516404 0.18200001 nan
0.02079377 -0.014516404 0.18200001 nan
0.02236311 -0.014516404 0.18200001 nan
0.02314778 -0.014516404 0.18200001 nan
0.02393245 -0.014516404 0.18200001 nan
0.024324786 -0.014516404 0.18200001 nan
0.031953767 -0.014596165 0.18300001 nan
0.032171492 -0.014516404 0.18200001 nan
0.035898678 -0.014596165 0.18300001 nan
0.035896521 -0.014436645 0.18100001 nan
0.035885744 -0.014277123 0.17900001 nan
0.036068976 -0.014197362 0.178 nan
0.036043108 -0.014037842 0.17600001 nan
0.036008615 -0.01387832 0.17400001 nan
0.035965502 -0.0137188 0.17200001 nan
0.035913765 -0.013559278 0.17 nan
0.035853408 -0.013399758 0.16800001 nan
0.035999995 -0.013319998 0.16700001 nan
0.035924546 -0.013160476 0.16500001 nan
0.03584047 -0.013000956 0.163 nan
0.035969812 -0.012921195 0.162 nan
0.041027058 -0.014596165 0.18300001 nan
-0.042255796 -0.012571973 0.162 nan
-0.041906577 -0.012571973 0.162 nan
-0.042070411 -0.012727183 0.164 nan
-0.041971251 -0.012804788 0.16500001 -3.3960457e+38
-0.041867778 -0.012882393 0.16600001 -3.3560125e+38
-0.04201005 -0.013037602 0.16800001 nan
-0.041895803 -0.013115208 0.16900001 nan
-0.042022984 -0.013270416 0.171 nan
-0.041897956 -0.013348022 0.17200001 -3.3693569e+38
-0.04201005 -0.013503231 0.17400001 -3.3960457e+38
-0.042113528 -0.013658441 0.17600001 nan
-0.041971248 -0.013736045 0.177 -3.3960457e+38
-0.04205963 -0.013891255 0.17900001 nan
-0.042139392 -0.014046464 0.18100001 -3.3960457e+38
-0.041979872 -0.014124069 0.18200001 -3.3827013e+38
-0.042044546 -0.014279279 0.18400002 -3.3159795e+38
-0.04210059 -0.014434488 0.186 -3.2626022e+38
-0.038448855 -0.014124069 0.18200001 nan
-0.038056523 -0.014124069 0.18200001 nan
-0.038078077 -0.014279279 0.18400002 nan
-0.038091008 -0.014434488 0.186 -3.3026874e+38
-0.031274725 -0.014434488 0.186 nan
-0.030209815 -0.014124069 0.18200001 nan
-0.029425144 -0.014124069 0.18200001 nan
-0.029032808 -0.014124069 0.18200001 nan
-0.028640475 -0.014124069 0.18200001 nan
-0.027855804 -0.014124069 0.18200001 nan
-0.026678797 -0.014124069 0.18200001 nan
-0.026286464 -0.014124069 0.18200001 nan
-0.025501793 -0.014124069 0.18200001 nan
-0.02471712 -0.014124069 0.18200001 nan
-0.024324786 -0.014124069 0.18200001 nan
-0.023540117 -0.014124069 0.18200001 nan
-0.022755446 -0.014124069 0.18200001 nan
-0.021970775 -0.014124069 0.18200001 nan
-0.021578439 -0.014124069 0.18200001 nan
-0.020401433 -0.014124069 0.18200001 nan
-0.019224428 -0.014124069 0.18200001 nan
-0.018832091 -0.014124069 0.18200001 nan
-0.018439759 -0.014124069 0.18200001 nan
-0.017655088 -0.014124069 0.18200001 nan
-0.017262751 -0.014124069 0.18200001 nan
-0.016870417 -0.014124069 0.18200001 nan
-0.01647808 -0.014124069 0.18200001 nan
-0.016085746 -0.014124069 0.18200001 nan
-0.008773651 -0.014356882 0.185 nan
-0.0082390402 -0.014124069 0.18200001 nan
0.0019832333 -0.014279279 0.18400002 nan
0.0023540114 -0.014124069 0.18200001 nan
0.0099161658 -0.014279279 0.18400002 nan
0.010200717 -0.014124069 0.18200001 nan
0.012162393 -0.014124069 0.18200001 nan
0.015693411 -0.014124069 0.18200001 nan
0.016870417 -0.014124069 0.18200001 nan
0.017262751 -0.014124069 0.18200001 nan
0.018047422 -0.014124069 0.18200001 nan
0.019224428 -0.014124069 0.18200001 nan
0.019616762 -0.014124069 0.18200001 nan
0.02079377 -0.014124069 0.18200001 nan
0.021186106 -0.014124069 0.18200001 nan
0.021578439 -0.014124069 0.18200001 nan
0.021970775 -0.014124069 0.18200001 nan
0.022755446 -0.014124069 0.18200001 nan
0.024324786 -0.014124069 0.18200001 nan
0.031953767 -0.014201674 0.18300001 nan
0.035898678 -0.014201674 0.18300001 nan
0.035896521 -0.014046464 0.18100001 nan
0.035885744 -0.013891255 0.17900001 nan
0.035866339 -0.013736045 0.177 nan
0.036043108 -0.013658441 0.17600001 nan
0.036008615 -0.013503231 0.17400001 nan
0.035965502 -0.013348022 0.17200001 nan
0.035913765 -0.013192811 0.17 nan
0.035853408 -0.013037602 0.16800001 nan
0.035999995 -0.012959998 0.16700001 nan
0.035924546 -0.012804788 0.16500001 nan
0.03584047 -0.012649578 0.163 nan
0.035969812 -0.012571973 0.162 nan
0.041027058 -0.014201674 0.18300001 nan
-0.048776757 -0.014108979 0.18700001 nan
-0.041906577 -0.012222752 0.162 nan
-0.04181388 -0.0122982 0.163 -3.3960457e+38
-0.041971251 -0.012449099 0.16500001 -3.3426681e+38
-0.041867778 -0.012524549 0.16600001 nan
-0.04201005 -0.012675447 0.16800001 nan
-0.041895803 -0.012750897 0.16900001 nan
-0.042022984 -0.012901794 0.171 nan
-0.041897956 -0.012977242 0.17200001 nan
-0.04201005 -0.013128141 0.17400001 -3.3693569e+38
-0.042113528 -0.013279039 0.17600001 -3.3960457e+38
-0.041971248 -0.013354489 0.177 -3.3960457e+38
-0.04205963 -0.013505387 0.17900001 nan
-0.042139392 -0.013656286 0.18100001 -3.3693569e+38
-0.041979872 -0.013731734 0.18200001 -3.3426681e+38
-0.042044546 -0.013882632 0.18400002 -3.3960455e+38
-0.04210059 -0.01403353 0.186 -3.3960457e+38
-0.039505143 -0.014108979 0.18700001 nan
-0.038056523 -0.013731734 0.18200001 nan
-0.038078077 -0.013882632 0.18400002 nan
-0.038091008 -0.01403353 0.186 nan
-0.031274725 -0.01403353 0.186 nan
-0.030209815 -0.013731734 0.18200001 nan
-0.029817481 -0.013731734 0.18200001 nan
-0.029032808 -0.013731734 0.18200001 nan
-0.028640475 -0.013731734 0.18200001 nan
-0.027463468 -0.013731734 0.18200001 nan
-0.025894128 -0.013731734 0.18200001 nan
-0.025501793 -0.013731734 0.18200001 nan
-0.02471712 -0.013731734 0.18200001 nan
-0.02393245 -0.013731734 0.18200001 nan
-0.021186106 -0.013731734 0.18200001 nan
-0.020009099 -0.013731734 0.18200001 nan
-0.019616762 -0.013731734 0.18200001 nan
-0.018832091 -0.013731734 0.18200001 nan
-0.018439759 -0.013731734 0.18200001 nan
-0.018047422 -0.013731734 0.18200001 nan
-0.017655088 -0.013731734 0.18200001 nan
-0.017262751 -0.013731734 0.18200001 nan
-0.016870417 -0.013731734 0.18200001 nan
-0.016085746 -0.013731734 0.18200001 nan
-0.0086313756 -0.013731734 0.18200001 nan
-0.0082390402 -0.013731734 0.18200001 nan
0.0019832333 -0.013882632 0.18400002 nan
0.0023540114 -0.013731734 0.18200001 nan
0.0099161658 -0.013882632 0.18400002 nan
0.012162393 -0.013731734 0.18200001 nan
0.013339398 -0.013731734 0.18200001 nan
0.013731734 -0.013731734 0.18200001 nan
0.014124069 -0.013731734 0.18200001 nan
0.016085746 -0.013731734 0.18200001 nan
0.018439759 -0.013731734 0.18200001 nan
0.020009099 -0.013731734 0.18200001 nan
0.02079377 -0.013731734 0.18200001 nan
0.021186106 -0.013731734 0.18200001 nan
0.021970775 -0.013731734 0.18200001 nan
0.02314778 -0.013731734 0.18200001 nan
0.02393245 -0.013731734 0.18200001 nan
0.024324786 -0.013731734 0.18200001 nan
0.031953767 -0.013807184 0.18300001 nan
0.032171492 -0.013731734 0.18200001 nan
0.035898678 -0.013807184 0.18300001 nan
0.035896521 -0.013656286 0.18100001 nan
0.035885744 -0.013505387 0.17900001 nan
0.035866339 -0.013354489 0.177 nan
0.035838321 -0.013203591 0.17500001 nan
0.036008615 -0.013128141 0.17400001 nan
0.035965502 -0.012977242 0.17200001 nan
0.035913765 -0.012826345 0.17 nan
0.035853408 -0.012675447 0.16800001 nan
0.035784423 -0.012524549 0.16600001 nan
0.035924546 -0.012449099 0.16500001 nan
0.03584047 -0.0122982 0.163 nan
0.035969812 -0.012222752 0.162 nan
0.041027058 -0.013807184 0.18300001 nan
-0.048776757 -0.013705865 0.18700001 nan
-0.041906577 -0.01187353 0.162 nan
-0.04181388 -0.011946824 0.163 nan
-0.041971251 -0.012093411 0.16500001 -3.3960457e+38
-0.041867778 -0.012166704 0.16600001 -3.3827013e+38
-0.04201005 -0.012313291 0.16800001 nan
-0.041895803 -0.012386585 0.16900001 -3.3960457e+38
-0.042022984 -0.012533171 0.171 -3.3560125e+38
-0.041897956 -0.012606464 0.17200001 nan
-0.04201005 -0.012753052 0.17400001 -3.3827013e+38
-0.041874245 -0.012826345 0.17500001 -3.3960457e+38
-0.041971248 -0.012972931 0.177 -3.3693569e+38
-0.04205963 -0.013119518 0.17900001 -3.3693569e+38
-0.041906577 -0.013192812 0.18000001 -3.3693569e+38
-0.041979872 -0.013339398 0.18200001 -3.3960457e+38
-0.042044546 -0.013485986 0.18400002 -3.3960457e+38
-0.04210059 -0.013632572 0.186 nan
-0.039505143 -0.013705865 0.18700001 nan
-0.038056523 -0.013339398 0.18200001 nan
-0.03787113 -0.013412693 0.18300001 nan
-0.037886221 -0.013559278 0.185 nan
-0.031274725 -0.013632572 0.186 nan
-0.029817481 -0.013339398 0.18200001 nan
-0.029032808 -0.013339398 0.18200001 nan
-0.028248139 -0.013339398 0.18200001 nan
-0.027463468 -0.013339398 0.18200001 nan
-0.026286464 -0.013339398 0.18200001 nan
-0.025894128 -0.013339398 0.18200001 nan
-0.024324786 -0.013339398 0.18200001 nan
-0.023540117 -0.013339398 0.18200001 nan
-0.021970775 -0.013339398 0.18200001 nan
-0.020009099 -0.013339398 0.18200001 nan
-0.019224428 -0.013339398 0.18200001 nan
-0.017262751 -0.013339398 0.18200001 nan
-0.01647808 -0.013339398 0.18200001 nan
-0.01617413 -0.013412693 0.18300001 nan
-0.0086313756 -0.013339398 0.18200001 nan
-0.0082390402 -0.013339398 0.18200001 nan
0.0019832333 -0.013485986 0.18400002 nan
0.0099161658 -0.013485986 0.18400002 nan
0.011377723 -0.013339398 0.18200001 nan
0.012162393 -0.013339398 0.18200001 nan
0.013339398 -0.013339398 0.18200001 nan
0.013731734 -0.013339398 0.18200001 nan
0.014124069 -0.013339398 0.18200001 nan
0.015301076 -0.013339398 0.18200001 nan
0.015693411 -0.013339398 0.18200001 nan
0.016085746 -0.013339398 0.18200001 nan
0.01647808 -0.013339398 0.18200001 nan
0.018047422 -0.013339398 0.18200001 nan
0.021186106 -0.013339398 0.18200001 nan
0.021578439 -0.013339398 0.18200001 nan
0.02236311 -0.013339398 0.18200001 nan
0.022755446 -0.013339398 0.18200001 nan
0.024324786 -0.013339398 0.18200001 nan
0.031779155 -0.013339398 0.18200001 nan
0.032171492 -0.013339398 0.18200001 nan
0.035898678 -0.013412693 0.18300001 nan
0.035896521 -0.013266105 0.18100001 nan
0.035885744 -0.013119518 0.17900001 nan
0.035866339 -0.012972931 0.177 nan
0.035838321 -0.012826345 0.17500001 nan
0.035801671 -0.012679758 0.17300001 nan
0.035965502 -0.012606464 0.17200001 nan
0.035913765 -0.012459878 0.17 nan
0.035853408 -0.012313291 0.16800001 nan
0.035784423 -0.012166704 0.16600001 nan
0.035924546 -0.012093411 0.16500001 nan
0.03584047 -0.011946824 0.163 nan
0.035969812 -0.01187353 0.162 nan
-0.048776757 -0.013302752 0.18700001 nan
-0.041906577 -0.011524309 0.162 nan
-0.04181388 -0.011595447 0.163 -3.3960457e+38
-0.041971251 -0.011737722 0.16500001 nan
-0.041867778 -0.01180886 0.16600001 nan
-0.04201005 -0.011951136 0.16800001 nan
-0.041895803 -0.012022274 0.16900001 nan
-0.042022984 -0.012164548 0.171 -3.3960457e+38
-0.041897956 -0.012235686 0.17200001 -3.3693569e+38
-0.04201005 -0.012377962 0.17400001 nan
-0.041874245 -0.012449101 0.17500001 -3.3960457e+38
-0.041971248 -0.012591374 0.177 -3.3827013e+38
-0.04205963 -0.012733649 0.17900001 -3.3960457e+38
-0.041906577 -0.012804788 0.18000001 -3.3827013e+38
-0.041979872 -0.012947064 0.18200001 -3.3560125e+38
-0.042044546 -0.013089339 0.18400002 -3.3960457e+38
-0.04210059 -0.013231614 0.186 nan
-0.039505143 -0.013302752 0.18700001 nan
-0.03787113 -0.013018202 0.18300001 -3.3960974e+38
-0.037886221 -0.013160476 0.185 nan
-0.030209815 -0.012947064 0.18200001 nan
-0.029817481 -0.012947064 0.18200001 nan
-0.028248139 -0.012947064 0.18200001 nan
-0.027855804 -0.012947064 0.18200001 nan
-0.026678797 -0.012947064 0.18200001 nan
-0.025894128 -0.012947064 0.18200001 nan
-0.025109457 -0.012947064 0.18200001 nan
-0.02471712 -0.012947064 0.18200001 nan
-0.021970775 -0.012947064 0.18200001 nan
-0.021578439 -0.012947064 0.18200001 nan
-0.02079377 -0.012947064 0.18200001 nan
-0.020009099 -0.012947064 0.18200001 nan
-0.019224428 -0.012947064 0.18200001 nan
-0.018047422 -0.012947064 0.18200001 nan
-0.016870417 -0.012947064 0.18200001 nan
-0.01617413 -0.013018202 0.18300001 nan
-0.0086313756 -0.012947064 0.18200001 nan
-0.0082390402 -0.012947064 0.18200001 nan
0.0027765266 -0.013089339 0.18400002 nan
0.0099161658 -0.013089339 0.18400002 nan
0.010200717 -0.012947064 0.18200001 nan
0.010985387 -0.012947064 0.18200001 nan
0.011770058 -0.012947064 0.18200001 nan
0.013339398 -0.012947064 0.18200001 nan
0.014516404 -0.012947064 0.18200001 nan
0.01490874 -0.012947064 0.18200001 nan
0.015301076 -0.012947064 0.18200001 nan
0.016870417 -0.012947064 0.18200001 nan
0.017262751 -0.012947064 0.18200001 nan
0.018439759 -0.012947064 0.18200001 nan
0.018832091 -0.012947064 0.18200001 nan
0.019224428 -0.012947064 0.18200001 nan
0.02079377 -0.012947064 0.18200001 nan
0.021578439 -0.012947064 0.18200001 nan
0.023540117 -0.012947064 0.18200001 nan
0.024458438 -0.013018202 0.18300001 nan
0.031779155 -0.012947064 0.18200001 nan
0.032171492 -0.012947064 0.18200001 nan
0.035898678 -0.013018202 0.18300001 nan
0.035896521 -0.012875927 0.18100001 nan
0.035885744 -0.012733649 0.17900001 nan
0.035866339 -0.012591374 0.177 nan
0.035838321 -0.012449101 0.17500001 nan
0.035801671 -0.012306823 0.17300001 nan
0.035965502 -0.012235686 0.17200001 nan
0.035913765 -0.012093411 0.17 nan
0.035853408 -0.011951136 0.16800001 nan
0.035784423 -0.01180886 0.16600001 nan
0.035924546 -0.011737722 0.16500001 nan
0.03584047 -0.011595447 0.163 nan
-0.048776757 -0.012899638 0.18700001 nan
-0.041906577 -0.011175088 0.162 nan
-0.04181388 -0.01124407 0.163 -3.3827013e+38
-0.041971251 -0.011382034 0.16500001 -3.3827013e+38
-0.041867778 -0.011451016 0.16600001 -3.3960457e+38
-0.04201005 -0.01158898 0.16800001 -3.3827013e+38
-0.041895803 -0.011657963 0.16900001 -3.3960457e+38
-0.042022984 -0.011795926 0.171 nan
-0.041897956 -0.011864908 0.17200001 -3.3426681e+38
-0.04201005 -0.012002872 0.17400001 -3.3960457e+38
-0.041874245 -0.012071854 0.17500001 nan
-0.041971248 -0.012209818 0.177 -3.3827013e+38
-0.04205963 -0.012347782 0.17900001 -3.3693569e+38
-0.041906577 -0.012416764 0.18000001 nan
-0.041979872 -0.012554728 0.18200001 -3.3827013e+38
-0.042044546 -0.012692693 0.18400002 -3.3960457e+38
-0.04210059 -0.012830656 0.186 nan
-0.039505143 -0.012899638 0.18700001 nan
-0.03787113 -0.012623711 0.18300001 nan
-0.037886221 -0.012761674 0.185 nan
-0.030209815 -0.012554728 0.18200001 nan
-0.029817481 -0.012554728 0.18200001 nan
-0.029425144 -0.012554728 0.18200001 nan
-0.025894128 -0.012554728 0.18200001 nan
-0.02471712 -0.012554728 0.18200001 nan
-0.02314778 -0.012554728 0.18200001 nan
-0.021186106 -0.012554728 0.18200001 nan
-0.02079377 -0.012554728 0.18200001 nan
-0.019616762 -0.012554728 0.18200001 nan
-0.018832091 -0.012554728 0.18200001 nan
-0.017262751 -0.012554728 0.18200001 nan
-0.01647808 -0.012554728 0.18200001 nan
-0.0086313756 -0.012554728 0.18200001 nan
-0.0082843099 -0.012623711 0.18300001 nan
0.0023540114 -0.012554728 0.18200001 nan
0.0027765266 -0.012692693 0.18400002 nan
0.010200717 -0.012554728 0.18200001 nan
0.011770058 -0.012554728 0.18200001 nan
0.012554728 -0.012554728 0.18200001 nan
0.012947064 -0.012554728 0.18200001 nan
0.013731734 -0.012554728 0.18200001 nan
0.014516404 -0.012554728 0.18200001 nan
0.01490874 -0.012554728 0.18200001 nan
0.016085746 -0.012554728 0.18200001 nan
0.017262751 -0.012554728 0.18200001 nan
0.018832091 -0.012554728 0.18200001 nan
0.019224428 -0.012554728 0.18200001 nan
0.020401433 -0.012554728 0.18200001 nan
0.02079377 -0.012554728 0.18200001 nan
0.021186106 -0.012554728 0.18200001 nan
0.021970775 -0.012554728 0.18200001 nan
0.022755446 -0.012554728 0.18200001 nan
0.02393245 -0.012554728 0.18200001 nan
0.024458438 -0.012623711 0.18300001 nan
0.031779155 -0.012554728 0.18200001 nan
0.032171492 -0.012554728 0.18200001 nan
0.035898678 -0.012623711 0.18300001 nan
0.035896521 -0.012485746 0.18100001 nan
0.035885744 -0.012347782 0.17900001 nan
0.035866339 -0.012209818 0.177 nan
0.035838321 -0.012071854 0.17500001 nan
0.035801671 -0.01193389 0.17300001 nan
0.035756398 -0.011795926 0.171 nan
0.035913765 -0.011726944 0.17 nan
0.035853408 -0.01158898 0.16800001 nan
0.035784423 -0.011451016 0.16600001 nan
0.035924546 -0.011382034 0.16500001 nan
0.03584047 -0.01124407 0.163 nan
0.035969812 -0.011175088 0.162 nan
-0.048776757 -0.012496524 0.18700001 nan
-0.041906577 -0.010825865 0.162 nan
-0.04181388 -0.010892692 0.163 nan
-0.041971251 -0.011026345 0.16500001 -3.3960976e+38
-0.041867778 -0.011093172 0.16600001 nan
-0.041759994 -0.011159998 0.16700001 -3.3827013e+38
-0.041895803 -0.011293651 0.16900001 nan
-0.041777238 -0.011360477 0.17 nan
-0.041897956 -0.01149413 0.17200001 -3.3693569e+38
-0.04201005 -0.011627783 0.17400001 nan
-0.041874245 -0.011694608 0.17500001 -3.3960457e+38
-0.041971248 -0.01182826 0.177 -3.3426681e+38
-0.041824661 -0.011895088 0.178 nan
-0.041906577 -0.012028741 0.18000001 nan
-0.041979872 -0.012162393 0.18200001 nan
-0.042044546 -0.012296046 0.18400002 -3.3560125e+38
-0.041874245 -0.012362871 0.185 -3.3693569e+38
-0.03787113 -0.012229219 0.18300001 nan
-0.037886221 -0.012362871 0.185 nan
-0.030873766 -0.012429698 0.186 nan
-0.029032808 -0.012162393 0.18200001 nan
-0.028640475 -0.012162393 0.18200001 nan
-0.028248139 -0.012162393 0.18200001 nan
-0.027855804 -0.012162393 0.18200001 nan
-0.027071133 -0.012162393 0.18200001 nan
-0.026678797 -0.012162393 0.18200001 nan
-0.026286464 -0.012162393 0.18200001 nan
-0.025894128 -0.012162393 0.18200001 nan
-0.025501793 -0.012162393 0.18200001 nan
-0.02471712 -0.012162393 0.18200001 nan
-0.02393245 -0.012162393 0.18200001 nan
-0.022755446 -0.012162393 0.18200001 nan
-0.019224428 -0.012162393 0.18200001 nan
-0.018439759 -0.012162393 0.18200001 nan
-0.017655088 -0.012162393 0.18200001 nan
-0.017262751 -0.012162393 0.18200001 nan
-0.01647808 -0.012162393 0.18200001 nan
-0.0086313756 -0.012162393 0.18200001 nan
-0.0083295796 -0.012296046 0.18400002 nan
0.0023540114 -0.012162393 0.18200001 nan
0.0027765266 -0.012296046 0.18400002 nan
0.010256764 -0.012229219 0.18300001 nan
0.010593053 -0.012162393 0.18200001 nan
0.010985387 -0.012162393 0.18200001 nan
0.011377723 -0.012162393 0.18200001 nan
0.013731734 -0.012162393 0.18200001 nan
0.014124069 -0.012162393 0.18200001 nan
0.015693411 -0.012162393 0.18200001 nan
0.016085746 -0.012162393 0.18200001 nan
0.017262751 -0.012162393 0.18200001 nan
0.018047422 -0.012162393 0.18200001 nan
0.019224428 -0.012162393 0.18200001 nan
0.020009099 -0.012162393 0.18200001 nan
0.02079377 -0.012162393 0.18200001 nan
0.021578439 -0.012162393 0.18200001 nan
0.021970775 -0.012162393 0.18200001 nan
0.023540117 -0.012162393 0.18200001 nan
0.02393245 -0.012162393 0.18200001 nan
0.031559277 -0.012229219 0.18300001 nan
0.031779155 -0.012162393 0.18200001 nan
0.032171492 -0.012162393 0.18200001 nan
0.035898678 -0.012229219 0.18300001 nan
0.035896521 -0.012095566 0.18100001 nan
0.035885744 -0.011961914 0.17900001 nan
0.035866339 -0.01182826 0.177 nan
0.035838321 -0.011694608 0.17500001 nan
0.035801671 -0.011560956 0.17300001 nan
0.035756398 -0.011427303 0.171 nan
0.035913765 -0.011360477 0.17 nan
0.035853408 -0.011226824 0.16800001 nan
0.035784423 -0.011093172 0.16600001 nan
0.035706822 -0.010959519 0.164 nan
0.03584047 -0.010892692 0.163 nan
-0.041906577 -0.010476644 0.162 nan
-0.04181388 -0.010541314 0.163 nan
-0.041716877 -0.010605985 0.164 nan
-0.041867778 -0.010735328 0.16600001 -3.3960457e+38
-0.041759994 -0.010799998 0.16700001 -3.3960457e+38
-0.041895803 -0.01092934 0.16900001 -3.3560125e+38
-0.041777238 -0.01099401 0.17 nan
-0.041897956 -0.011123352 0.17200001 -3.3693569e+38
-0.04201005 -0.011252693 0.17400001 -3.3827013e+38
-0.041874245 -0.011317364 0.17500001 -3.3693569e+38
-0.041971248 -0.011446704 0.177 -3.3827013e+38
-0.041824661 -0.011511375 0.178 -3.3960457e+38
-0.041906577 -0.011640716 0.18000001 -3.3827013e+38
-0.041979872 -0.011770058 0.18200001 -3.3960457e+38
-0.042044546 -0.0118994 0.18400002 -3.3693569e+38
-0.041874245 -0.01196407 0.185 -3.3827013e+38
-0.03787113 -0.011834729 0.18300001 nan
-0.037886221 -0.01196407 0.185 nan
-0.030873766 -0.01202874 0.186 nan
-0.029425144 -0.011770058 0.18200001 nan
-0.027463468 -0.011770058 0.18200001 nan
-0.025501793 -0.011770058 0.18200001 nan
-0.025109457 -0.011770058 0.18200001 nan
-0.021578439 -0.011770058 0.18200001 nan
-0.020401433 -0.011770058 0.18200001 nan
-0.020009099 -0.011770058 0.18200001 nan
-0.018832091 -0.011770058 0.18200001 nan
-0.016870417 -0.011770058 0.18200001 nan
-0.01656862 -0.011834729 0.18300001 nan
-0.0083295796 -0.0118994 0.18400002 nan
0.0023540114 -0.011770058 0.18200001 nan
0.0027916164 -0.01196407 0.185 nan
0.011377723 -0.011770058 0.18200001 nan
0.011770058 -0.011770058 0.18200001 nan
0.012162393 -0.011770058 0.18200001 nan
0.013339398 -0.011770058 0.18200001 nan
0.013731734 -0.011770058 0.18200001 nan
0.014124069 -0.011770058 0.18200001 nan
0.016085746 -0.011770058 0.18200001 nan
0.018439759 -0.011770058 0.18200001 nan
0.019616762 -0.011770058 0.18200001 nan
0.020009099 -0.011770058 0.18200001 nan
0.021578439 -0.011770058 0.18200001 nan
0.021970775 -0.011770058 0.18200001 nan
0.02236311 -0.011770058 0.18200001 nan
0.022755446 -0.011770058 0.18200001 nan
0.02314778 -0.011770058 0.18200001 nan
0.02393245 -0.011770058 0.18200001 nan
0.031559277 -0.011834729 0.18300001 nan
0.031779155 -0.011770058 0.18200001 nan
0.03234826 -0.011834729 0.18300001 nan
0.035898678 -0.011834729 0.18300001 nan
0.035896521 -0.011705387 0.18100001 nan
0.035885744 -0.011576046 0.17900001 nan
0.035866339 -0.011446704 0.177 nan
0.035838321 -0.011317364 0.17500001 nan
0.035801671 -0.011188022 0.17300001 nan
0.035756398 -0.011058681 0.171 nan
0.035702512 -0.01092934 0.16900001 nan
0.035853408 -0.010864669 0.16800001 nan
0.035784423 -0.010735328 0.16600001 nan
0.035706822 -0.010605985 0.164 nan
0.03584047 -0.010541314 0.163 nan
0.035969812 -0.010476644 0.162 nan
-0.041906577 -0.010127422 0.162 nan
-0.04181388 -0.010189938 0.163 -3.3960457e+38
-0.041716877 -0.010252452 0.164 nan
-0.041867778 -0.010377483 0.16600001 -3.3827013e+38
-0.041759994 -0.010439998 0.16700001 -3.3960457e+38
-0.041895803 -0.010565029 0.16900001 -3.3827013e+38
-0.041777238 -0.010627542 0.17 -3.3960457e+38
-0.041897956 -0.010752574 0.17200001 nan
-0.041768614 -0.010815088 0.17300001 -3.3693569e+38
-0.041874245 -0.010940118 0.17500001 -3.3960457e+38
-0.041971248 -0.011065147 0.177 -3.3960457e+38
-0.041824661 -0.011127663 0.178 -3.3693569e+38
-0.041906577 -0.011252693 0.18000001 -3.3827013e+38
-0.041979872 -0.011377723 0.18200001 -3.3960457e+38
-0.041816041 -0.011440237 0.18300001 -3.3827013e+38
-0.041874245 -0.011565267 0.185 -3.3827013e+38
-0.038056523 -0.011377723 0.18200001 nan
-0.037664182 -0.011377723 0.18200001 nan
-0.037681431 -0.011502753 0.18400002 nan
-0.037690055 -0.011627782 0.186 nan
-0.029817481 -0.011377723 0.18200001 nan
-0.029425144 -0.011377723 0.18200001 nan
-0.029032808 -0.011377723 0.18200001 nan
-0.028248139 -0.011377723 0.18200001 nan
-0.027855804 -0.011377723 0.18200001 nan
-0.026678797 -0.011377723 0.18200001 nan
-0.026286464 -0.011377723 0.18200001 nan
-0.025894128 -0.011377723 0.18200001 nan
-0.025109457 -0.011377723 0.18200001 nan
-0.02471712 -0.011377723 0.18200001 nan
-0.02393245 -0.011377723 0.18200001 nan
-0.023540117 -0.011377723 0.18200001 nan
-0.02236311 -0.011377723 0.18200001 nan
-0.021970775 -0.011377723 0.18200001 nan
-0.021578439 -0.011377723 0.18200001 nan
-0.021186106 -0.011377723 0.18200001 nan
-0.02079377 -0.011377723 0.18200001 nan
-0.020401433 -0.011377723 0.18200001 nan
-0.020009099 -0.011377723 0.18200001 nan
-0.019616762 -0.011377723 0.18200001 nan
-0.016870417 -0.011377723 0.18200001 nan
-0.016659159 -0.011502753 0.18400002 -3.1025744e+38
-0.0091724535 -0.011565267 0.185 nan
-0.0086313756 -0.011377723 0.18200001 nan
0.0023540114 -0.011377723 0.18200001 nan
0.0027463469 -0.011377723 0.18200001 nan
0.010593053 -0.011377723 0.18200001 nan
0.011377723 -0.011377723 0.18200001 nan
0.012554728 -0.011377723 0.18200001 nan
0.013731734 -0.011377723 0.18200001 nan
0.015301076 -0.011377723 0.18200001 nan
0.015693411 -0.011377723 0.18200001 nan
0.017262751 -0.011377723 0.18200001 nan
0.019224428 -0.011377723 0.18200001 nan
0.020009099 -0.011377723 0.18200001 nan
0.021578439 -0.011377723 0.18200001 nan
0.021970775 -0.011377723 0.18200001 nan
0.023540117 -0.011377723 0.18200001 nan
0.031559277 -0.011440237 0.18300001 nan
0.03234826 -0.011440237 0.18300001 nan
0.035898678 -0.011440237 0.18300001 nan
0.035896521 -0.011315207 0.18100001 nan
0.035885744 -0.011190177 0.17900001 nan
0.035866339 -0.011065147 0.177 nan
0.035838321 -0.010940118 0.17500001 nan
0.035801671 -0.010815088 0.17300001 nan
0.035756398 -0.010690058 0.171 nan
0.035702512 -0.010565029 0.16900001 nan
0.035853408 -0.010502513 0.16800001 nan
0.035784423 -0.010377483 0.16600001 nan
0.035706822 -0.010252452 0.164 nan
0.03584047 -0.010189938 0.163 nan
0.035969812 -0.010127422 0.162 nan
-0.041906577 -0.0097782016 0.162 nan
-0.04181388 -0.0098385606 0.163 nan
-0.041716877 -0.0098989196 0.164 nan
-0.041867778 -0.010019639 0.16600001 -3.3960457e+38
-0.041759994 -0.010079998 0.16700001 nan
-0.041895803 -0.010200717 0.16900001 nan
-0.041777238 -0.010261076 0.17 -3.3693569e+38
-0.041897956 -0.010381794 0.17200001 nan
-0.041768614 -0.010442154 0.17300001 -3.3827013e+38
-0.041874245 -0.010562873 0.17500001 nan
-0.041971248 -0.01068359 0.177 -3.3827013e+38
-0.041824661 -0.01074395 0.178 -3.3693569e+38
-0.041906577 -0.010864669 0.18000001 nan
-0.041979872 -0.010985387 0.18200001 -3.3960457e+38
-0.041816041 -0.011045747 0.18300001 -3.3827013e+38
-0.041874245 -0.011166465 0.185 nan
-0.039102025 -0.011287184 0.18700001 nan
-0.037664182 -0.010985387 0.18200001 nan
-0.037681431 -0.011106106 0.18400002 nan
-0.037690055 -0.011226824 0.186 nan
-0.030472809 -0.011226824 0.186 nan
-0.027071133 -0.010985387 0.18200001 nan
-0.025501793 -0.010985387 0.18200001 nan
-0.02393245 -0.010985387 0.18200001 nan
-0.023540117 -0.010985387 0.18200001 nan
-0.021970775 -0.010985387 0.18200001 nan
-0.020401433 -0.010985387 0.18200001 nan
-0.018439759 -0.010985387 0.18200001 nan
-0.017262751 -0.010985387 0.18200001 nan
-0.016870417 -0.010985387 0.18200001 nan
-0.0090237111 -0.010985387 0.18200001 nan
-0.0086313756 -0.010985387 0.18200001 nan
0.0023928138 -0.011166465 0.185 nan
0.01070946 -0.011106106 0.18400002 -3.3693025e+38
0.011377723 -0.010985387 0.18200001 nan
0.012162393 -0.010985387 0.18200001 nan
0.012554728 -0.010985387 0.18200001 nan
0.014124069 -0.010985387 0.18200001 nan
0.01490874 -0.010985387 0.18200001 nan
0.015693411 -0.010985387 0.18200001 nan
0.016085746 -0.010985387 0.18200001 nan
0.019616762 -0.010985387 0.18200001 nan
0.021578439 -0.010985387 0.18200001 nan
0.021970775 -0.010985387 0.18200001 nan
0.023540117 -0.010985387 0.18200001 nan
0.031559277 -0.011045747 0.18300001 nan
0.035702508 -0.010985387 0.18200001 nan
0.035698198 -0.010864669 0.18000001 nan
0.035685264 -0.01074395 0.178 nan
0.035663705 -0.010623232 0.17600001 nan
0.035838321 -0.010562873 0.17500001 nan
0.035801671 -0.010442154 0.17300001 nan
0.035756398 -0.010321435 0.171 nan
0.035702512 -0.010200717 0.16900001 nan
0.035639994 -0.010079998 0.16700001 nan
0.035784423 -0.010019639 0.16600001 nan
0.035706822 -0.0098989196 0.164 nan
0.035620593 -0.0097782016 0.162 nan
0.035969812 -0.0097782016 0.162 nan
-0.041906577 -0.0094289798 0.162 nan
-0.04181388 -0.0094871838 0.163 nan
-0.041716877 -0.0095453868 0.164 nan
-0.041867778 -0.0096617946 0.16600001 nan
-0.041759994 -0.0097199986 0.16700001 nan
-0.041895803 -0.0098364055 0.16900001 nan
-0.041777238 -0.0098946085 0.17 nan
-0.041897956 -0.010011015 0.17200001 nan
-0.041768614 -0.010069219 0.17300001 -3.3827013e+38
-0.041874245 -0.010185627 0.17500001 nan
-0.041734122 -0.01024383 0.17600001 -3.3560125e+38
-0.041824661 -0.010360237 0.178 nan
-0.041906577 -0.010476644 0.18000001 -3.3960457e+38
-0.041979872 -0.010593053 0.18200001 -3.3960457e+38
-0.041816041 -0.010651256 0.18300001 -3.3960457e+38
-0.041874245 -0.010767662 0.185 nan
-0.039102025 -0.01088407 0.18700001 nan
-0.037664182 -0.010593053 0.18200001 nan
-0.037476644 -0.010651256 0.18300001 nan
-0.037487414 -0.010767662 0.185 nan
-0.029425144 -0.010593053 0.18200001 nan
-0.029032808 -0.010593053 0.18200001 nan
-0.027855804 -0.010593053 0.18200001 nan
-0.026678797 -0.010593053 0.18200001 nan
-0.025894128 -0.010593053 0.18200001 nan
-0.023540117 -0.010593053 0.18200001 nan
-0.02314778 -0.010593053 0.18200001 nan
-0.022755446 -0.010593053 0.18200001 nan
-0.021970775 -0.010593053 0.18200001 nan
-0.021578439 -0.010593053 0.18200001 nan
-0.020009099 -0.010593053 0.18200001 nan
-0.019616762 -0.010593053 0.18200001 nan
-0.018832091 -0.010593053 0.18200001 nan
-0.017055806 -0.01070946 0.18400002 -3.0491968e+38
-0.0090237111 -0.010593053 0.18200001 nan
-0.0086313756 -0.010593053 0.18200001 nan
0.0027463469 -0.010593053 0.18200001 nan
0.0031904185 -0.010767662 0.185 nan
0.010985387 -0.010593053 0.18200001 nan
0.011377723 -0.010593053 0.18200001 nan
0.011770058 -0.010593053 0.18200001 nan
0.012162393 -0.010593053 0.18200001 nan
0.013339398 -0.010593053 0.18200001 nan
0.014124069 -0.010593053 0.18200001 nan
0.015693411 -0.010593053 0.18200001 nan
0.01647808 -0.010593053 0.18200001 nan
0.017262751 -0.010593053 0.18200001 nan
0.019616762 -0.010593053 0.18200001 nan
0.020401433 -0.010593053 0.18200001 nan
0.02079377 -0.010593053 0.18200001 nan
0.021186106 -0.010593053 0.18200001 nan
0.021578439 -0.010593053 0.18200001 nan
0.021970775 -0.010593053 0.18200001 nan
0.023798799 -0.01070946 0.18400002 nan
0.031386822 -0.010593053 0.18200001 nan
0.031779155 -0.010593053 0.18200001 nan
0.035702508 -0.010593053 0.18200001 nan
0.035698198 -0.010476644 0.18000001 nan
0.035685264 -0.010360237 0.178 nan
0.035663705 -0.01024383 0.17600001 nan
0.035838321 -0.010185627 0.17500001 nan
0.035801671 -0.010069219 0.17300001 nan
0.035756398 -0.0099528125 0.171 nan
0.035702512 -0.0098364055 0.16900001 nan
0.035639994 -0.0097199986 0.16700001 nan
0.035784423 -0.0096617946 0.16600001 nan
0.035706822 -0.0095453868 0.164 nan
0.035620593 -0.0094289798 0.162 nan
0.040632568 -0.010651256 0.18300001 nan
-0.041906577 -0.0090797581 0.162 nan
-0.041557357 -0.0090797581 0.162 nan
-0.041716877 -0.0091918539 0.164 nan
-0.041615561 -0.0092479018 0.16500001 nan
-0.041759994 -0.0093599986 0.16700001 nan
-0.0416479 -0.0094160466 0.16800001 nan
-0.041777238 -0.0095281415 0.17 nan
-0.041654363 -0.0095841894 0.171 nan
-0.041768614 -0.0096962852 0.17300001 nan
-0.041874245 -0.0098083811 0.17500001 nan
-0.041734122 -0.009864429 0.17600001 nan
-0.041824661 -0.0099765249 0.178 nan
-0.041906577 -0.010088621 0.18000001 nan
-0.041749213 -0.010144669 0.18100001 nan
-0.041816041 -0.010256764 0.18300001 -3.3560125e+38
-0.041874245 -0.010368859 0.185 -3.3827013e+38
-0.041923821 -0.010480955 0.18700001 -3.3292174e+38
-0.037476644 -0.010256764 0.18300001 nan
-0.037487414 -0.010368859 0.185 nan
-0.029032808 -0.010200717 0.18200001 nan
-0.028640475 -0.010200717 0.18200001 nan
-0.027855804 -0.010200717 0.18200001 nan
-0.027071133 -0.010200717 0.18200001 nan
-0.024324786 -0.010200717 0.18200001 nan
-0.022755446 -0.010200717 0.18200001 nan
-0.02236311 -0.010200717 0.18200001 nan
-0.021186106 -0.010200717 0.18200001 nan
-0.02079377 -0.010200717 0.18200001 nan
-0.020009099 -0.010200717 0.18200001 nan
-0.019616762 -0.010200717 0.18200001 nan
-0.019224428 -0.010200717 0.18200001 nan
-0.018832091 -0.010200717 0.18200001 nan
-0.017357603 -0.010256764 0.18300001 nan
-0.0090237111 -0.010200717 0.18200001 nan
-0.0087262262 -0.010312812 0.18400002 nan
0.0027463469 -0.010200717 0.18200001 nan
0.0031904185 -0.010368859 0.185 nan
0.011377723 -0.010200717 0.18200001 nan
0.011770058 -0.010200717 0.18200001 nan
0.013731734 -0.010200717 0.18200001 nan
0.014516404 -0.010200717 0.18200001 nan
0.01490874 -0.010200717 0.18200001 nan
0.015693411 -0.010200717 0.18200001 nan
0.016870417 -0.010200717 0.18200001 nan
0.017262751 -0.010200717 0.18200001 nan
0.02079377 -0.010200717 0.18200001 nan
0.022755446 -0.010200717 0.18200001 nan
0.023402153 -0.010312812 0.18400002 nan
0.031164784 -0.010256764 0.18300001 nan
0.031386822 -0.010200717 0.18200001 nan
0.031953767 -0.010256764 0.18300001 nan
0.035504185 -0.010256764 0.18300001 nan
0.035702508 -0.010200717 0.18200001 nan
0.035698198 -0.010088621 0.18000001 nan
0.035685264 -0.0099765249 0.178 nan
0.035663705 -0.009864429 0.17600001 nan
0.035633527 -0.0097523332 0.17400001 nan
0.035801671 -0.0096962852 0.17300001 nan
0.035756398 -0.0095841894 0.171 nan
0.035702512 -0.0094720945 0.16900001 nan
0.035639994 -0.0093599986 0.16700001 nan
0.035568856 -0.0092479018 0.16500001 nan
0.035706822 -0.0091918539 0.164 nan
0.035620593 -0.0090797581 0.162 nan
0.040632568 -0.010256764 0.18300001 nan
-0.041906577 -0.0087305373 0.162 nan
-0.041557357 -0.0087305373 0.162 nan
-0.041716877 -0.0088383211 0.164 nan
-0.041615561 -0.0088922139 0.16500001 nan
-0.041759994 -0.0089999987 0.16700001 nan
-0.0416479 -0.0090538906 0.16800001 nan
-0.041777238 -0.0091616744 0.17 nan
-0.041654363 -0.0092155673 0.171 nan
-0.041768614 -0.009323352 0.17300001 nan
-0.041634962 -0.0093772439 0.17400001 nan
-0.041734122 -0.0094850287 0.17600001 nan
-0.041824661 -0.0095928125 0.178 nan
-0.041906577 -0.0097005963 0.18000001 nan
-0.041749213 -0.0097544892 0.18100001 nan
-0.041816041 -0.0098622739 0.18300001 nan
-0.041874245 -0.0099700578 0.185 nan
-0.041923821 -0.010077843 0.18700001 -3.3292174e+38
-0.037664182 -0.0098083811 0.18200001 nan
-0.03727185 -0.0098083811 0.18200001 nan
-0.037284784 -0.0099161658 0.18400002 nan
-0.037289094 -0.01002395 0.186 nan
-0.02967089 -0.01002395 0.186 nan
-0.028248139 -0.0098083811 0.18200001 nan
-0.027855804 -0.0098083811 0.18200001 nan
-0.027071133 -0.0098083811 0.18200001 nan
-0.02471712 -0.0098083811 0.18200001 nan
-0.022755446 -0.0098083811 0.18200001 nan
-0.021578439 -0.0098083811 0.18200001 nan
-0.021186106 -0.0098083811 0.18200001 nan
-0.020401433 -0.0098083811 0.18200001 nan
-0.019224428 -0.0098083811 0.18200001 nan
-0.018832091 -0.0098083811 0.18200001 nan
-0.018439759 -0.0098083811 0.18200001 nan
-0.017655088 -0.0098083811 0.18200001 nan
-0.0095712552 -0.0099700578 0.185 nan
0.0027463469 -0.0098083811 0.18200001 nan
0.0031386821 -0.0098083811 0.18200001 nan
0.011502753 -0.0099161658 0.18400002 nan
0.012554728 -0.0098083811 0.18200001 nan
0.015693411 -0.0098083811 0.18200001 nan
0.01647808 -0.0098083811 0.18200001 nan
0.017262751 -0.0098083811 0.18200001 nan
0.018439759 -0.0098083811 0.18200001 nan
0.020401433 -0.0098083811 0.18200001 nan
0.02079377 -0.0098083811 0.18200001 nan
0.021186106 -0.0098083811 0.18200001 nan
0.02236311 -0.0098083811 0.18200001 nan
0.022755446 -0.0098083811 0.18200001 nan
0.031164784 -0.0098622739 0.18300001 nan
0.031386822 -0.0098083811 0.18200001 nan
0.035504185 -0.0098622739 0.18300001 nan
0.035702508 -0.0098083811 0.18200001 nan
0.035698198 -0.0097005963 0.18000001 nan
0.035685264 -0.0095928125 0.178 nan
0.035663705 -0.0094850287 0.17600001 nan
0.035633527 -0.0093772439 0.17400001 nan
0.035594724 -0.0092694592 0.17200001 nan
0.035547297 -0.0091616744 0.17 nan
0.035702512 -0.0091077834 0.16900001 nan
0.035639994 -0.0089999987 0.16700001 nan
0.035568856 -0.0088922139 0.16500001 nan
0.035489094 -0.0087844301 0.163 nan
0.035620593 -0.0087305373 0.162 nan
0.040632568 -0.0098622739 0.18300001 nan
-0.048373643 -0.0096747279 0.18700001 nan
-0.041557357 -0.0083813155 0.162 nan
-0.041462507 -0.0084330523 0.163 nan
-0.041615561 -0.0085365251 0.16500001 nan
-0.04150993 -0.0085882619 0.16600001 nan
-0.0416479 -0.0086917356 0.16800001 nan
-0.041531488 -0.0087434715 0.16900001 nan
-0.041654363 -0.0088469442 0.171 nan
-0.041768614 -0.0089504179 0.17300001 nan
-0.041634962 -0.0090021538 0.17400001 nan
-0.041734122 -0.0091056274 0.17600001 nan
-0.041589689 -0.0091573633 0.177 nan
-0.041673765 -0.0092608361 0.17900001 nan
-0.041749213 -0.0093643097 0.18100001 nan
-0.041816041 -0.0094677825 0.18300001 nan
-0.041874245 -0.0095712552 0.185 nan
-0.041699629 -0.009622992 0.186 nan
-0.038698912 -0.0096747279 0.18700001 nan
-0.03727185 -0.0094160456 0.18200001 nan
-0.037284784 -0.0095195193 0.18400002 nan
-0.037289094 -0.009622992 0.186 nan
-0.029269934 -0.009622992 0.186 nan
-0.027463468 -0.0094160456 0.18200001 nan
-0.027071133 -0.0094160456 0.18200001 nan
-0.025894128 -0.0094160456 0.18200001 nan
-0.025501793 -0.0094160456 0.18200001 nan
-0.02393245 -0.0094160456 0.18200001 nan
-0.023540117 -0.0094160456 0.18200001 nan
-0.021578439 -0.0094160456 0.18200001 nan
-0.021186106 -0.0094160456 0.18200001 nan
-0.02079377 -0.0094160456 0.18200001 nan
-0.020009099 -0.0094160456 0.18200001 nan
-0.018832091 -0.0094160456 0.18200001 nan
-0.018439759 -0.0094160456 0.18200001 nan
-0.018047422 -0.0094160456 0.18200001 nan
-0.0094160456 -0.0094160456 0.18200001 nan
-0.0090237111 -0.0094160456 0.18200001 nan
0.0027916164 -0.0095712552 0.185 nan
0.0031386821 -0.0094160456 0.18200001 nan
0.011834729 -0.0094677825 0.18300001 nan
0.012947064 -0.0094160456 0.18200001 nan
0.013731734 -0.0094160456 0.18200001 nan
0.01490874 -0.0094160456 0.18200001 nan
0.015301076 -0.0094160456 0.18200001 nan
0.015693411 -0.0094160456 0.18200001 nan
0.01647808 -0.0094160456 0.18200001 nan
0.018047422 -0.0094160456 0.18200001 nan
0.018832091 -0.0094160456 0.18200001 nan
0.019616762 -0.0094160456 0.18200001 nan
0.020009099 -0.0094160456 0.18200001 nan
0.020401433 -0.0094160456 0.18200001 nan
0.02236311 -0.0094160456 0.18200001 nan
0.030994486 -0.0094160456 0.18200001 nan
0.031386822 -0.0094160456 0.18200001 nan
0.035504185 -0.0094677825 0.18300001 nan
0.035702508 -0.0094160456 0.18200001 nan
0.035698198 -0.0093125729 0.18000001 nan
0.035685264 -0.0092091002 0.178 nan
0.035663705 -0.0091056274 0.17600001 nan
0.035633527 -0.0090021538 0.17400001 nan
0.035594724 -0.008898681 0.17200001 nan
0.035547297 -0.0087952074 0.17 nan
0.03549125 -0.0086917356 0.16800001 nan
0.035426579 -0.0085882619 0.16600001 nan
0.035568856 -0.0085365251 0.16500001 nan
0.035489094 -0.0084330523 0.163 nan
0.035620593 -0.0083813155 0.162 nan
-0.048373643 -0.0092716152 0.18700001 nan
-0.041557357 -0.0080320938 0.162 nan
-0.041462507 -0.0080816746 0.163 nan
-0.041615561 -0.0081808362 0.16500001 nan
-0.04150993 -0.008230418 0.16600001 nan
-0.0416479 -0.0083295796 0.16800001 nan
-0.041531488 -0.0083791604 0.16900001 nan
-0.041654363 -0.0084783211 0.171 nan
-0.041527174 -0.008527902 0.17200001 nan
-0.041634962 -0.0086270645 0.17400001 nan
-0.041497 -0.0086766453 0.17500001 nan
-0.041589689 -0.008775807 0.177 nan
-0.041673765 -0.0088749686 0.17900001 nan
-0.041749213 -0.0089741303 0.18100001 nan
-0.041587539 -0.0090237111 0.18200001 nan
-0.0416479 -0.0091228727 0.18400002 nan
-0.041699629 -0.0092220334 0.186 nan
-0.037082151 -0.0090732919 0.18300001 nan
-0.037088614 -0.0091724535 0.185 nan
-0.037086461 -0.0092716152 0.18700001 nan
-0.028868975 -0.0092220334 0.186 nan
-0.025894128 -0.0090237111 0.18200001 nan
-0.025109457 -0.0090237111 0.18200001 nan
-0.02471712 -0.0090237111 0.18200001 nan
-0.023540117 -0.0090237111 0.18200001 nan
-0.02314778 -0.0090237111 0.18200001 nan
-0.022755446 -0.0090237111 0.18200001 nan
-0.021970775 -0.0090237111 0.18200001 nan
-0.021186106 -0.0090237111 0.18200001 nan
-0.02079377 -0.0090237111 0.18200001 nan
-0.020401433 -0.0090237111 0.18200001 nan
-0.019224428 -0.0090237111 0.18200001 nan
-0.018439759 -0.0090237111 0.18200001 nan
-0.0090732919 -0.0090732919 0.18300001 nan
0.0031386821 -0.0090237111 0.18200001 nan
0.0035892206 -0.0091724535 0.185 nan
0.012229219 -0.0090732919 0.18300001 nan
0.012554728 -0.0090237111 0.18200001 nan
0.014516404 -0.0090237111 0.18200001 nan
0.01490874 -0.0090237111 0.18200001 nan
0.015301076 -0.0090237111 0.18200001 nan
0.016085746 -0.0090237111 0.18200001 nan
0.016870417 -0.0090237111 0.18200001 nan
0.017262751 -0.0090237111 0.18200001 nan
0.017655088 -0.0090237111 0.18200001 nan
0.018047422 -0.0090237111 0.18200001 nan
0.02079377 -0.0090237111 0.18200001 nan
0.021186106 -0.0090237111 0.18200001 nan
0.021970775 -0.0090237111 0.18200001 nan
0.030938439 -0.0091228727 0.18400002 nan
0.030994486 -0.0090237111 0.18200001 nan
0.031386822 -0.0090237111 0.18200001 nan
0.035504185 -0.0090732919 0.18300001 nan
0.035506342 -0.0089741303 0.18100001 nan
0.035499875 -0.0088749686 0.17900001 nan
0.035484783 -0.008775807 0.177 nan
0.035461072 -0.0086766453 0.17500001 nan
0.035428736 -0.0085774837 0.17300001 nan
0.035594724 -0.008527902 0.17200001 nan
0.035547297 -0.0084287403 0.17 nan
0.03549125 -0.0083295796 0.16800001 nan
0.035426579 -0.008230418 0.16600001 nan
0.035353284 -0.0081312554 0.164 nan
0.035489094 -0.0080816746 0.163 nan
-0.041557357 -0.0076828729 0.162 nan
-0.041462507 -0.0077302977 0.163 nan
-0.041363344 -0.007777723 0.164 nan
-0.04150993 -0.0078725731 0.16600001 nan
-0.041399993 -0.0079199988 0.16700001 nan
-0.041531488 -0.0080148494 0.16900001 nan
-0.04141077 -0.0080622733 0.17 nan
-0.041527174 -0.0081571238 0.17200001 nan
-0.041634962 -0.0082519744 0.17400001 nan
-0.041497 -0.0082994001 0.17500001 nan
-0.041589689 -0.0083942497 0.177 nan
-0.041673765 -0.0084891003 0.17900001 nan
-0.041518554 -0.0085365251 0.18000001 nan
-0.041587539 -0.0086313756 0.18200001 nan
-0.0416479 -0.0087262262 0.18400002 nan
-0.041699629 -0.0088210758 0.186 nan
-0.03727185 -0.0086313756 0.18200001 nan
-0.036879517 -0.0086313756 0.18200001 nan
-0.036888137 -0.0087262262 0.18400002 nan
-0.036888134 -0.0088210758 0.186 nan
-0.028468018 -0.0088210758 0.186 nan
-0.027463468 -0.0086313756 0.18200001 nan
-0.026286464 -0.0086313756 0.18200001 nan
-0.024324786 -0.0086313756 0.18200001 nan
-0.021970775 -0.0086313756 0.18200001 nan
-0.020401433 -0.0086313756 0.18200001 nan
-0.020009099 -0.0086313756 0.18200001 nan
-0.019616762 -0.0086313756 0.18200001 nan
-0.019224428 -0.0086313756 0.18200001 nan
-0.018832091 -0.0086313756 0.18200001 nan
-0.0099700578 -0.008773651 0.185 nan
0.0031559276 -0.0086788014 0.18300001 nan
0.0035310173 -0.0086313756 0.18200001 nan
0.012623711 -0.0086788014 0.18300001 nan
0.013339398 -0.0086313756 0.18200001 nan
0.013731734 -0.0086313756 0.18200001 nan
0.01490874 -0.0086313756 0.18200001 nan
0.015693411 -0.0086313756 0.18200001 nan
0.017262751 -0.0086313756 0.18200001 nan
0.018439759 -0.0086313756 0.18200001 nan
0.018832091 -0.0086313756 0.18200001 nan
0.019616762 -0.0086313756 0.18200001 nan
0.020009099 -0.0086313756 0.18200001 nan
0.021578439 -0.0086313756 0.18200001 nan
0.030770294 -0.0086788014 0.18300001 nan
0.030994486 -0.0086313756 0.18200001 nan
0.035504185 -0.0086788014 0.18300001 nan
0.035506342 -0.0085839508 0.18100001 nan
0.035499875 -0.0084891003 0.17900001 nan
0.035484783 -0.0083942497 0.177 nan
0.035461072 -0.0082994001 0.17500001 nan
0.035428736 -0.0082045496 0.17300001 nan
0.035387777 -0.008109699 0.171 nan
0.035338201 -0.0080148494 0.16900001 nan
0.03549125 -0.0079674236 0.16800001 nan
0.035426579 -0.0078725731 0.16600001 nan
0.035353284 -0.007777723 0.164 nan
0.035271369 -0.0076828729 0.162 nan
0.035620593 -0.0076828729 0.162 nan
-0.041557357 -0.0073336507 0.162 nan
-0.041462507 -0.0073789204 0.163 nan
-0.041363344 -0.0074241897 0.164 nan
-0.04150993 -0.0075147292 0.16600001 nan
-0.041399993 -0.0075599989 0.16700001 nan
-0.041531488 -0.0076505379 0.16900001 nan
-0.04141077 -0.0076958067 0.17 nan
-0.041527174 -0.0077863461 0.17200001 nan
-0.041395683 -0.0078316154 0.17300001 nan
-0.041497 -0.0079221539 0.17500001 nan
-0.041589689 -0.0080126924 0.177 nan
-0.041440949 -0.0080579622 0.178 nan
-0.041518554 -0.0081485016 0.18000001 nan
-0.041587539 -0.0082390402 0.18200001 nan
-0.0416479 -0.0083295796 0.18400002 nan
-0.041475438 -0.0083748484 0.185 nan
-0.038295802 -0.0084653869 0.18700001 nan
-0.036687657 -0.0082843099 0.18300001 nan
-0.036689814 -0.0083748484 0.185 nan
-0.036683347 -0.0084653869 0.18700001 nan
-0.027071133 -0.0082390402 0.18200001 nan
-0.026286464 -0.0082390402 0.18200001 nan
-0.025894128 -0.0082390402 0.18200001 nan
-0.02471712 -0.0082390402 0.18200001 nan
-0.024324786 -0.0082390402 0.18200001 nan
-0.02393245 -0.0082390402 0.18200001 nan
-0.022755446 -0.0082390402 0.18200001 nan
-0.02236311 -0.0082390402 0.18200001 nan
-0.019616762 -0.0082390402 0.18200001 nan
-0.019330058 -0.0082843099 0.18300001 nan
-0.0094677825 -0.0082843099 0.18300001 nan
0.0031904185 -0.0083748484 0.185 nan
0.0039880229 -0.0083748484 0.185 nan
0.013089339 -0.0083295796 0.18400002 -3.3559581e+38
0.013339398 -0.0082390402 0.18200001 nan
0.013731734 -0.0082390402 0.18200001 nan
0.014516404 -0.0082390402 0.18200001 nan
0.015693411 -0.0082390402 0.18200001 nan
0.016085746 -0.0082390402 0.18200001 nan
0.01647808 -0.0082390402 0.18200001 nan
0.018832091 -0.0082390402 0.18200001 nan
0.019224428 -0.0082390402 0.18200001 nan
0.020401433 -0.0082390402 0.18200001 nan
0.02141892 -0.0083295796 0.18400002 nan
0.030541793 -0.0083295796 0.18400002 nan
0.030602152 -0.0082390402 0.18200001 nan
0.030994486 -0.0082390402 0.18200001 nan
0.035504185 -0.0082843099 0.18300001 nan
0.035506342 -0.0081937704 0.18100001 nan
0.035499875 -0.0081032319 0.17900001 nan
0.035484783 -0.0080126924 0.177 nan
0.035461072 -0.0079221539 0.17500001 nan
0.035428736 -0.0078316154 0.17300001 nan
0.035387777 -0.0077410764 0.171 nan
0.035338201 -0.0076505379 0.16900001 nan
0.035279993 -0.0075599989 0.16700001 nan
0.035426579 -0.0075147292 0.16600001 nan
0.035353284 -0.0074241897 0.164 nan
0.035271369 -0.0073336507 0.162 nan
0.035620593 -0.0073336507 0.162 nan
-0.041557357 -0.0069844294 0.162 nan
-0.041208133 -0.0069844294 0.162 nan
-0.041363344 -0.0070706573 0.164 nan
-0.041259874 -0.007113771 0.16500001 nan
-0.041399993 -0.0071999985 0.16700001 nan
-0.041285746 -0.0072431122 0.16800001 nan
-0.04141077 -0.0073293396 0.17 nan
-0.041285738 -0.0073724533 0.171 nan
-0.041395683 -0.0074586808 0.17300001 nan
-0.041497 -0.0075449091 0.17500001 nan
-0.041354727 -0.0075880229 0.17600001 nan
-0.041440949 -0.0076742498 0.178 nan
-0.041518554 -0.0077604777 0.18000001 nan
-0.041359033 -0.0078035914 0.18100001 nan
-0.041421551 -0.0078898193 0.18300001 nan
-0.041475438 -0.0079760458 0.185 nan
-0.036879517 -0.0078467056 0.18200001 nan
-0.036487177 -0.0078467056 0.18200001 nan
-0.036491491 -0.007932933 0.18400002 nan
-0.036487177 -0.0080191595 0.186 nan
-0.027265145 -0.0080191595 0.186 nan
-0.026286464 -0.0078467056 0.18200001 nan
-0.025501793 -0.0078467056 0.18200001 nan
-0.02471712 -0.0078467056 0.18200001 nan
-0.024324786 -0.0078467056 0.18200001 nan
-0.02393245 -0.0078467056 0.18200001 nan
-0.023540117 -0.0078467056 0.18200001 nan
-0.021970775 -0.0078467056 0.18200001 nan
-0.020401433 -0.0078467056 0.18200001 nan
-0.020119039 -0.0078898193 0.18300001 nan
-0.019940116 -0.0079760458 0.185 -3.222568e+38
-0.010368859 -0.0079760458 0.185 nan
-0.0098083811 -0.0078467056 0.18200001 nan
0.0035310173 -0.0078467056 0.18200001 nan
0.0039233528 -0.0078467056 0.18200001 nan
0.013882632 -0.007932933 0.18400002 nan
0.014124069 -0.0078467056 0.18200001 nan
0.014516404 -0.0078467056 0.18200001 nan
0.015301076 -0.0078467056 0.18200001 nan
0.017262751 -0.0078467056 0.18200001 nan
0.017655088 -0.0078467056 0.18200001 nan
0.018047422 -0.0078467056 0.18200001 nan
0.018439759 -0.0078467056 0.18200001 nan
0.019224428 -0.0078467056 0.18200001 nan
0.020401433 -0.0078467056 0.18200001 nan
0.030375803 -0.0078898193 0.18300001 nan
0.035310175 -0.0078467056 0.18200001 nan
0.035310175 -0.0077604777 0.18000001 nan
